0.000000 -0.000000 186.000000
0.000000 -14.087301 143.000000
0.000000 -27.393815 99.000000
0.000000 -38.169700 73.000000
0.000000 -55.917600 30.000000
0.000000 -67.607843 19.000000
0.000000 -76.339401 18.000000
0.000000 -94.087301 20.000000
0.000000 -104.082400 25.000000
0.000000 -111.835201 28.000000
0.000000 -128.164799 41.000000
25.000000 -0.000000 154.000000
25.000000 -14.087301 159.000000
25.000000 -27.393815 146.000000
25.000000 -38.169700 94.000000
25.000000 -55.917600 47.000000
25.000000 -67.607843 39.000000
25.000000 -76.339401 33.000000
25.000000 -94.087301 16.000000
25.000000 -104.082400 32.000000
25.000000 -111.835201 37.000000
25.000000 -128.164799 34.000000
50.000000 -0.000000 89.000000
50.000000 -14.087301 80.000000
50.000000 -27.393815 47.000000
50.000000 -38.169700 35.000000
50.000000 -55.917600 22.000000
50.000000 -67.607843 20.000000
50.000000 -76.339401 13.000000
50.000000 -94.087301 9.000000
50.000000 -104.082400 7.000000
50.000000 -111.835201 4.000000
50.000000 -128.164799 1.000000
72.000000 -0.000000 89.000000
72.000000 -14.087301 50.000000
72.000000 -27.393815 36.000000
72.000000 -38.169700 30.000000
72.000000 -55.917600 11.000000
72.000000 -67.607843 11.000000
72.000000 -76.339401 10.000000
72.000000 -94.087301 7.000000
72.000000 -104.082400 10.000000
72.000000 -111.835201 8.000000
72.000000 -128.164799 8.000000
97.000000 -0.000000 139.000000
97.000000 -14.087301 95.000000
97.000000 -27.393815 68.000000
97.000000 -38.169700 47.000000
97.000000 -55.917600 19.000000
97.000000 -67.607843 16.000000
97.000000 -76.339401 19.000000
97.000000 -94.087301 38.000000
97.000000 -104.082400 60.000000
97.000000 -111.835201 42.000000
97.000000 -128.164799 26.000000
130.000000 -0.000000 67.000000
130.000000 -14.087301 64.000000
130.000000 -27.393815 55.000000
130.000000 -38.169700 49.000000
130.000000 -55.917600 40.000000
130.000000 -67.607843 36.000000
130.000000 -76.339401 26.000000
130.000000 -94.087301 19.000000
130.000000 -104.082400 17.000000
130.000000 -111.835201 12.000000
130.000000 -128.164799 9.000000
155.000000 -0.000000 76.000000
155.000000 -14.087301 64.000000
155.000000 -27.393815 57.000000
155.000000 -38.169700 46.000000
155.000000 -55.917600 35.000000
155.000000 -67.607843 33.000000
155.000000 -76.339401 39.000000
155.000000 -94.087301 34.000000
155.000000 -104.082400 32.000000
155.000000 -111.835201 26.000000
155.000000 -128.164799 15.000000
180.000000 -0.000000 67.000000
180.000000 -14.087301 84.000000
180.000000 -27.393815 63.000000
180.000000 -38.169700 43.000000
180.000000 -55.917600 32.000000
180.000000 -67.607843 35.000000
180.000000 -76.339401 34.000000
180.000000 -94.087301 26.000000
180.000000 -104.082400 21.000000
180.000000 -111.835201 20.000000
180.000000 -128.164799 10.000000
205.000000 -0.000000 107.000000
205.000000 -14.087301 143.000000
205.000000 -27.393815 183.000000
205.000000 -38.169700 177.000000
205.000000 -55.917600 153.000000
205.000000 -67.607843 5.000000
205.000000 -76.339401 34.000000
205.000000 -94.087301 24.000000
205.000000 -104.082400 26.000000
205.000000 -111.835201 22.000000
205.000000 -128.164799 11.000000
239.000000 -0.000000 98.000000
239.000000 -14.087301 127.000000
239.000000 -27.393815 137.000000
239.000000 -38.169700 167.000000
239.000000 -55.917600 69.000000
239.000000 -67.607843 58.000000
239.000000 -76.339401 34.000000
239.000000 -94.087301 24.000000
239.000000 -104.082400 26.000000
239.000000 -111.835201 27.000000
239.000000 -128.164799 38.000000
264.000000 -0.000000 537.000000
264.000000 -14.087301 437.000000
264.000000 -27.393815 411.000000
264.000000 -38.169700 94.000000
264.000000 -55.917600 98.000000
264.000000 -67.607843 30.000000
264.000000 -76.339401 26.000000
264.000000 -94.087301 19.000000
264.000000 -104.082400 16.000000
264.000000 -111.835201 13.000000
264.000000 -128.164799 10.000000
289.000000 -0.000000 89.000000
289.000000 -14.087301 119.000000
289.000000 -27.393815 119.000000
289.000000 -38.169700 115.000000
289.000000 -55.917600 74.000000
289.000000 -67.607843 29.000000
289.000000 -76.339401 22.000000
289.000000 -94.087301 20.000000
289.000000 -104.082400 21.000000
289.000000 -111.835201 20.000000
289.000000 -128.164799 21.000000
314.000000 -0.000000 98.000000
314.000000 -14.087301 119.000000
314.000000 -27.393815 110.000000
314.000000 -38.169700 110.000000
314.000000 -55.917600 69.000000
314.000000 -67.607843 36.000000
314.000000 -76.339401 29.000000
314.000000 -94.087301 23.000000
314.000000 -104.082400 20.000000
314.000000 -111.835201 19.000000
314.000000 -128.164799 9.000000
364.000000 -0.000000 94.000000
364.000000 -14.087301 72.000000
364.000000 -27.393815 41.000000
364.000000 -38.169700 30.000000
364.000000 -55.917600 30.000000
364.000000 -67.607843 25.000000
364.000000 -76.339401 26.000000
364.000000 -94.087301 28.000000
364.000000 -104.082400 25.000000
364.000000 -111.835201 25.000000
364.000000 -128.164799 11.000000
389.000000 -0.000000 107.000000
389.000000 -14.087301 64.000000
389.000000 -27.393815 38.000000
389.000000 -38.169700 28.000000
389.000000 -55.917600 24.000000
389.000000 -67.607843 23.000000
389.000000 -76.339401 22.000000
389.000000 -94.087301 21.000000
389.000000 -104.082400 21.000000
389.000000 -111.835201 19.000000
389.000000 -128.164799 10.000000
414.000000 -0.000000 89.000000
414.000000 -14.087301 64.000000
414.000000 -27.393815 33.000000
414.000000 -38.169700 30.000000
414.000000 -55.917600 24.000000
414.000000 -67.607843 28.000000
414.000000 -76.339401 27.000000
414.000000 -94.087301 29.000000
414.000000 -104.082400 32.000000
414.000000 -111.835201 43.000000
414.000000 -128.164799 59.000000
