0.000000 -0.000000 170.000000
0.000000 -14.087301 179.000000
0.000000 -27.393815 110.000000
0.000000 -38.169700 57.000000
0.000000 -55.917600 44.000000
0.000000 -67.607843 55.000000
0.000000 -76.339401 67.000000
0.000000 -94.087301 134.000000
0.000000 -104.082400 131.000000
0.000000 -111.835201 124.000000
0.000000 -128.164799 129.000000
25.000000 -0.000000 98.000000
25.000000 -14.087301 68.000000
25.000000 -27.393815 57.000000
25.000000 -38.169700 54.000000
25.000000 -55.917600 50.000000
25.000000 -67.607843 49.000000
25.000000 -76.339401 53.000000
25.000000 -94.087301 80.000000
25.000000 -104.082400 334.000000
25.000000 -111.835201 652.000000
25.000000 -128.164799 48.000000
87.000000 -0.000000 112.000000
87.000000 -14.087301 95.000000
87.000000 -27.393815 465.000000
87.000000 -38.169700 52.000000
87.000000 -55.917600 64.000000
87.000000 -67.607843 64.000000
87.000000 -76.339401 10.000000
87.000000 -94.087301 8.000000
87.000000 -104.082400 43.000000
87.000000 -111.835201 12.000000
87.000000 -128.164799 8.000000
112.000000 -0.000000 268.000000
112.000000 -14.087301 131.000000
112.000000 -27.393815 99.000000
112.000000 -38.169700 56.000000
112.000000 -55.917600 31.000000
112.000000 -67.607843 29.000000
112.000000 -76.339401 27.000000
112.000000 -94.087301 19.000000
112.000000 -104.082400 17.000000
112.000000 -111.835201 15.000000
112.000000 -128.164799 13.000000
137.000000 -0.000000 298.000000
137.000000 -14.087301 131.000000
137.000000 -27.393815 82.000000
137.000000 -38.169700 59.000000
137.000000 -55.917600 37.000000
137.000000 -67.607843 26.000000
137.000000 -76.339401 32.000000
137.000000 -94.087301 27.000000
137.000000 -104.082400 17.000000
137.000000 -111.835201 19.000000
137.000000 -128.164799 10.000000
162.000000 -0.000000 174.000000
162.000000 -14.087301 135.000000
162.000000 -27.393815 119.000000
162.000000 -38.169700 84.000000
162.000000 -55.917600 37.000000
162.000000 -67.607843 37.000000
162.000000 -76.339401 40.000000
162.000000 -94.087301 32.000000
162.000000 -104.082400 27.000000
162.000000 -111.835201 36.000000
162.000000 -128.164799 36.000000
187.000000 -0.000000 45.000000
187.000000 -14.087301 31.000000
187.000000 -27.393815 30.000000
187.000000 -38.169700 38.000000
187.000000 -55.917600 30.000000
187.000000 -67.607843 23.000000
187.000000 -76.339401 24.000000
187.000000 -94.087301 15.000000
187.000000 -104.082400 12.000000
187.000000 -111.835201 9.000000
187.000000 -128.164799 10.000000
212.000000 -0.000000 373.000000
212.000000 -14.087301 52.000000
212.000000 -27.393815 63.000000
212.000000 -38.169700 37.000000
212.000000 -55.917600 27.000000
212.000000 -67.607843 24.000000
212.000000 -76.339401 23.000000
212.000000 -94.087301 20.000000
212.000000 -104.082400 17.000000
212.000000 -111.835201 14.000000
212.000000 -128.164799 42.000000
237.000000 -0.000000 477.000000
237.000000 -14.087301 40.000000
237.000000 -27.393815 38.000000
237.000000 -38.169700 40.000000
237.000000 -55.917600 37.000000
237.000000 -67.607843 34.000000
237.000000 -76.339401 27.000000
237.000000 -94.087301 15.000000
237.000000 -104.082400 15.000000
237.000000 -111.835201 14.000000
237.000000 -128.164799 20.000000
